70.8333333325850845 42.2249999996728604 0.5
71.2499999992510595 42.2249999996728604 0.5
71.6666666659170346 42.2249999996728604 1
72.0833333325830097 42.2249999996728604 0.5
72.4999999992489848 42.2249999996728604 0
72.9166666659149598 42.2249999996728604 0.5
73.3333333325809349 42.2249999996728604 0.5
73.74999999924691 42.2249999996728604 1
74.166666665912885 42.2249999996728604 1
77.4999999992406856 42.2249999996728604 1
80.8333333325684862 42.2249999996728604 0
81.2499999992344328 42.2249999996728604 0
82.083333332566383 42.2249999996728604 0
82.4999999992323865 42.2249999996728604 0
83.3333333325643366 42.2249999996728604 0
83.7499999992302833 42.2249999996728604 0
84.5833333325622334 42.2249999996728604 0
87.916666665890034 42.2249999996728604 0
110.833333332518691 42.2249999996728604 0
114.583333332512439 42.2249999996728604 0
114.999999999178442 42.2249999996728604 0
115.416666665844389 42.2249999996728604 0
115.833333332510392 42.2249999996728604 0
116.249999999176339 42.2249999996728604 0
116.666666665842342 42.2249999996728604 0
117.499999999174292 42.2249999996728604 0
117.916666665840239 42.2249999996728604 0
118.333333332506243 42.2249999996728604 0
118.749999999172189 42.2249999996728604 0
119.166666665838193 42.2249999996728604 0
119.583333332504139 42.2249999996728604 0
119.999999999170143 42.2249999996728604 0
120.41666666583609 42.2249999996728604 0
120.833333332502093 42.2249999996728604 0
121.24999999916804 42.2249999996728604 0
121.666666665834043 42.2249999996728604 0
122.08333333249999 42.2249999996728604 0
122.91666666583194 42.2249999996728604 0
123.333333332497944 42.2249999996728604 0
123.74999999916389 42.2249999996728604 0
124.166666665829894 42.2249999996728604 0
124.58333333249584 42.2249999996728604 0
124.999999999161844 42.2249999996728604 0
125.41666666582779 42.2249999996728604 0
125.833333332493794 42.2249999996728604 0
126.249999999159741 42.2249999996728604 0
126.666666665825744 42.2249999996728604 0
127.083333332491691 42.2249999996728604 0.200000002980232239
127.499999999157694 42.2249999996728604 0.200000002980232239
127.916666665823641 42.2249999996728604 0
128.333333332489644 42.2249999996728604 0
128.749999999155591 42.2249999996728604 0
129.166666665821595 42.2249999996728604 0.125
129.583333332487541 42.2249999996728604 0.142857149243354797
129.999999999153545 42.2249999996728604 0.142857149243354797
130.416666665819491 42.2249999996728604 0
130.833333332485495 42.2249999996728604 0.200000002980232239
131.249999999151441 42.2249999996728604 0.666666686534881592
132.499999999149395 42.2249999996728604 0.75
132.916666665815342 42.2249999996728604 0.5
133.333333332481345 42.2249999996728604 0.666666686534881592
133.749999999147292 42.2249999996728604 0
139.166666665804996 42.2249999996728604 0.400000005960464478
139.583333332470943 42.2249999996728604 0.285714298486709595
139.999999999136946 42.2249999996728604 0.428571432828903198
140.416666665802893 42.2249999996728604 0.333333343267440796
140.833333332468897 42.2249999996728604 0.125
141.2499999991349 42.2249999996728604 0.384615391492843628
141.666666665800847 42.2249999996728604 0.166666671633720398
142.08333333246685 42.2249999996728604 0.200000002980232239
142.499999999132797 42.2249999996728604 0.30769231915473938
142.9166666657988 42.2249999996728604 0.333333343267440796
143.333333332464747 42.2249999996728604 0.333333343267440796
143.74999999913075 42.2249999996728604 0.666666686534881592
-124.583333333757253 41.8083333330062601 0
-124.166666667091278 41.8083333330062601 0.666666686534881592
-123.750000000425302 41.8083333330062601 0.428571432828903198
-123.333333333759327 41.8083333330062601 0.400000005960464478
-122.916666667093352 41.8083333330062601 0.400000005960464478
-122.500000000427377 41.8083333330062601 0.25
-122.083333333761402 41.8083333330062601 0.333333343267440796
-121.666666667095427 41.8083333330062601 0.5
-121.250000000429452 41.8083333330062601 0.333333343267440796
-120.833333333763477 41.8083333330062601 0.5
-120.416666667097502 41.8083333330062601 0.333333343267440796
-120.000000000431527 41.8083333330062601 0.333333343267440796
-119.583333333765552 41.8083333330062601 0.333333343267440796
-119.166666667099577 41.8083333330062601 0.5
-118.750000000433602 41.8083333330062601 0
-117.916666667101651 41.8083333330062601 0
-117.500000000435676 41.8083333330062601 0
-117.083333333769701 41.8083333330062601 0.5
-116.666666667103726 41.8083333330062601 0.5
-116.250000000437751 41.8083333330062601 0.333333343267440796
-115.833333333771776 41.8083333330062601 0.5
-115.416666667105801 41.8083333330062601 0.333333343267440796
-115.000000000439826 41.8083333330062601 0.5
-114.583333333773851 41.8083333330062601 0.5
-114.166666667107876 41.8083333330062601 0.333333343267440796
-113.750000000441901 41.8083333330062601 0.5
-113.333333333775926 41.8083333330062601 1
-112.916666667109951 41.8083333330062601 0
-112.500000000443976 41.8083333330062601 0
-112.083333333778 41.8083333330062601 0
-111.666666667112025 41.8083333330062601 0
-111.25000000044605 41.8083333330062601 0.5
-110.833333333780075 41.8083333330062601 0.5
-110.4166666671141 41.8083333330062601 0.5
-110.000000000448125 41.8083333330062601 0
-109.58333333378215 41.8083333330062601 0
-109.166666667116175 41.8083333330062601 0.5
-108.7500000004502 41.8083333330062601 0.5
-108.333333333784225 41.8083333330062601 0
-107.91666666711825 41.8083333330062601 0
-107.500000000452275 41.8083333330062601 0
-107.0833333337863 41.8083333330062601 0
-106.666666667120325 41.8083333330062601 0.333333343267440796
-106.250000000454349 41.8083333330062601 0.333333343267440796
-105.833333333788374 41.8083333330062601 0
-105.416666667122399 41.8083333330062601 0
-105.000000000456424 41.8083333330062601 0
-101.666666667128624 41.8083333330062601 0.5
-101.250000000462649 41.8083333330062601 1
-100.833333333796674 41.8083333330062601 1
-100.416666667130698 41.8083333330062601 1
-96.6666666671369228 41.8083333330062601 0
-96.2500000004709477 41.8083333330062601 0
-95.8333333338049727 41.8083333330062601 0
-95.4166666671389976 41.8083333330062601 0
-95.0000000004730225 41.8083333330062601 0
-94.5833333338070474 41.8083333330062601 0.25
-94.1666666671410724 41.8083333330062601 0.333333343267440796
-93.7500000004750973 41.8083333330062601 0.333333343267440796
-93.3333333338091222 41.8083333330062601 0.200000002980232239
-92.9166666671431472 41.8083333330062601 0.125
-92.5000000004771721 41.8083333330062601 0.1111111119389534
-92.083333333811197 41.8083333330062601 0.076923079788684845
-91.6666666671452219 41.8083333330062601 0.125
-91.2500000004792469 41.8083333330062601 0.100000001490116119
-90.8333333338132718 41.8083333330062601 0.100000001490116119
-90.4166666671472967 41.8083333330062601 0.166666671633720398
-90.0000000004813216 41.8083333330062601 0.125
-89.5833333338153466 41.8083333330062601 0.1111111119389534
-89.1666666671493715 41.8083333330062601 0.166666671633720398
-88.7500000004833964 41.8083333330062601 0.100000001490116119
-88.3333333338174214 41.8083333330062601 0.083333335816860199
-87.9166666671514463 41.8083333330062601 0.0714285746216773987
-87.5000000004854712 41.8083333330062601 0.0714285746216773987
-87.0833333338194961 41.8083333330062601 0
-86.6666666671535211 41.8083333330062601 0
-86.250000000487546 41.8083333330062601 0.0526315793395042419
-85.8333333338215709 41.8083333330062601 0.0454545468091964722
-85.4166666671555959 41.8083333330062601 0.0666666701436042786
-85.0000000004896208 41.8083333330062601 0.1111111119389534
-84.5833333338236457 41.8083333330062601 0.076923079788684845
-84.1666666671576706 41.8083333330062601 0.076923079788684845
-83.7500000004916956 41.8083333330062601 0.0625
-83.3333333338257205 41.8083333330062601 0
-82.9166666671597454 41.8083333330062601 0
-82.5000000004937704 41.8083333330062601 0.0555555559694766998
-82.0833333338277953 41.8083333330062601 0.0454545468091964722
-81.6666666671618202 41.8083333330062601 0.100000001490116119
-81.2500000004958451 41.8083333330062601 0.0666666701436042786
-80.8333333338298701 41.8083333330062601 0.076923079788684845
-80.416666667163895 41.8083333330062601 0.133333340287208557
-80.0000000004979199 41.8083333330062601 0.125
-79.5833333338319449 41.8083333330062601 0.100000001490116119
-79.1666666671659698 41.8083333330062601 0.235294118523597717
-78.7500000004999947 41.8083333330062601 0.272727280855178833
-78.3333333338340196 41.8083333330062601 0.166666671633720398
-77.9166666671680446 41.8083333330062601 0.333333343267440796
-77.5000000005020695 41.8083333330062601 0.230769231915473938
-77.0833333338360944 41.8083333330062601 0.266666680574417114
-76.6666666671701194 41.8083333330062601 0.210526317358016968
-76.2500000005041443 41.8083333330062601 0.190476194024085999
-75.8333333338381692 41.8083333330062601 0.142857149243354797
-75.4166666671721941 41.8083333330062601 0.166666671633720398
-75.0000000005062191 41.8083333330062601 0.3125
-74.583333333840244 41.8083333330062601 0.235294118523597717
-74.1666666671742689 41.8083333330062601 0.230769231915473938
-73.7500000005082939 41.8083333330062601 0.178571432828903198
-73.3333333338423188 41.8083333330062601 0.222222223877906799
-72.9166666671763437 41.8083333330062601 0.181818187236785889
-72.5000000005103686 41.8083333330062601 0.25
-72.0833333338443936 41.8083333330062601 0.130434781312942505
-71.6666666671784185 41.8083333330062601 0.166666671633720398
-71.2500000005124434 41.8083333330062601 0.230769231915473938
-70.8333333338464683 41.8083333330062601 0.285714298486709595
-70.4166666671804933 41.8083333330062601 0.210526317358016968
-70.0000000005145182 41.8083333330062601 0.315789461135864258
-69.5833333338485431 41.8083333330062601 0.384615391492843628
-9.16666666728215773 41.8083333330062601 0.5
-8.75000000061618266 41.8083333330062601 0.125
-8.33333333395020759 41.8083333330062601 0.200000002980232239
-7.91666666728423252 41.8083333330062601 0.333333343267440796
-7.50000000061825745 41.8083333330062601 0.222222223877906799
-7.08333333395228237 41.8083333330062601 0.222222223877906799
-6.6666666672863073 41.8083333330062601 0.100000001490116119
-6.25000000062033223 41.8083333330062601 0.181818187236785889
-5.83333333395435716 41.8083333330062601 0.200000002980232239
-5.41666666728838209 41.8083333330062601 0.125
-5.00000000062240701 41.8083333330062601 0.200000002980232239
-4.58333333395643194 41.8083333330062601 0.166666671633720398
-4.16666666729045687 41.8083333330062601 0.166666671633720398
-3.7500000006244818 41.8083333330062601 0.142857149243354797
-3.33333333395850673 41.8083333330062601 0.166666671633720398
-2.91666666729253166 41.8083333330062601 0.125
-2.50000000062655658 41.8083333330062601 0.142857149243354797
-2.08333333396058151 41.8083333330062601 0.25
-1.66666666729460644 41.8083333330062601 0.200000002980232239
-1.25000000062863137 41.8083333330062601 0.200000002980232239
-0.833333333962656297 41.8083333330062601 0.25
-0.416666667296681226 41.8083333330062601 0.333333343267440796
-6.30706153970095329e-10 41.8083333330062601 0.200000002980232239
0.416666666035268918 41.8083333330062601 0.200000002980232239
0.83333333270124399 41.8083333330062601 0.142857149243354797
1.24999999936721906 41.8083333330062601 0.0909090936183929443
1.66666666603319413 41.8083333330062601 0.083333335816860199
2.0833333326991692 41.8083333330062601 0.0588235296308994293
2.49999999936514428 41.8083333330062601 0.0714285746216773987
2.91666666603111935 41.8083333330062601 0.0625
3.33333333269709442 41.8083333330062601 0
3.74999999936306949 41.8083333330062601 0.5
8.33333333268879528 41.8083333330062601 0.166666671633720398
8.74999999935477035 41.8083333330062601 0.083333335816860199
9.16666666602074542 41.8083333330062601 0.222222223877906799
9.5833333326867205 41.8083333330062601 0.0909090936183929443
9.99999999935269557 41.8083333330062601 0
10.4166666660186706 41.8083333330062601 0
10.8333333326846457 41.8083333330062601 1
11.2499999993506208 41.8083333330062601 0
11.6666666660165959 41.8083333330062601 0.142857149243354797
12.0833333326825709 41.8083333330062601 0.125
12.499999999348546 41.8083333330062601 0.125
12.9166666660145211 41.8083333330062601 0.1111111119389534
13.3333333326804961 41.8083333330062601 0.285714298486709595
13.7499999993464712 41.8083333330062601 0.181818187236785889
14.1666666660124463 41.8083333330062601 0.100000001490116119
14.5833333326784214 41.8083333330062601 0.142857149243354797
14.9999999993443964 41.8083333330062601 0.333333343267440796
15.4166666660103715 41.8083333330062601 0.5
15.8333333326763466 41.8083333330062601 0
16.2499999993423216 41.8083333330062601 0
16.6666666660082967 41.8083333330062601 1
18.7499999993381721 41.8083333330062601 0.25
19.1666666660041471 41.8083333330062601 0.181818187236785889
19.5833333326701222 41.8083333330062601 0.25
19.9999999993360973 41.8083333330062601 0.100000001490116119
20.4166666660020724 41.8083333330062601 0.375
20.8333333326680474 41.8083333330062601 0.25
21.6666666659999976 41.8083333330062601 0.5
22.0833333326659726 41.8083333330062601 1
23.3333333326638979 41.8083333330062601 0
23.7499999993298729 41.8083333330062601 0
24.166666665995848 41.8083333330062601 0.166666671633720398
24.5833333326618231 41.8083333330062601 0.200000002980232239
24.9999999993277982 41.8083333330062601 0
25.4166666659937732 41.8083333330062601 0
25.8333333326597483 41.8083333330062601 0
26.2499999993257234 41.8083333330062601 0
26.6666666659916984 41.8083333330062601 0
27.0833333326576735 41.8083333330062601 0.25
27.4999999993236486 41.8083333330062601 0.142857149243354797
27.9166666659896237 41.8083333330062601 0.083333335816860199
28.3333333326555987 41.8083333330062601 0.0714285746216773987
28.7499999993215738 41.8083333330062601 0.125
29.1666666659875489 41.8083333330062601 0.333333343267440796
31.6666666659833993 41.8083333330062601 0.200000002980232239
32.0833333326493744 41.8083333330062601 0.272727280855178833
32.4999999993153494 41.8083333330062601 0.25
32.9166666659813245 41.8083333330062601 0.285714298486709595
33.3333333326472996 41.8083333330062601 0.666666686534881592
33.7499999993132747 41.8083333330062601 0.5
34.1666666659792782 41.8083333330062601 0.285714298486709595
34.5833333326452532 41.8083333330062601 0.125
34.9999999993112283 41.8083333330062601 0.125
35.4166666659772034 41.8083333330062601 0.285714298486709595
35.8333333326431784 41.8083333330062601 0.222222223877906799
36.2499999993091535 41.8083333330062601 0.222222223877906799
36.6666666659751286 41.8083333330062601 0.25
37.0833333326411037 41.8083333330062601 0.5
41.2499999993008544 41.8083333330062601 0.25
41.6666666659668294 41.8083333330062601 0.1875
42.0833333326328045 41.8083333330062601 0.100000001490116119
42.4999999992987796 41.8083333330062601 0.25
42.9166666659647547 41.8083333330062601 0.333333343267440796
43.3333333326307297 41.8083333330062601 0.400000005960464478
43.7499999992967048 41.8083333330062601 0.333333343267440796
44.1666666659626799 41.8083333330062601 0.400000005960464478
44.5833333326286549 41.8083333330062601 0.25
44.99999999929463 41.8083333330062601 0.400000005960464478
45.4166666659606051 41.8083333330062601 0.5
45.8333333326265802 41.8083333330062601 0.333333343267440796
46.2499999992925552 41.8083333330062601 0.666666686534881592
46.6666666659585303 41.8083333330062601 1
47.0833333326245054 41.8083333330062601 0.666666686534881592
47.4999999992904804 41.8083333330062601 0.5
47.9166666659564555 41.8083333330062601 0.400000005960464478
48.7499999992884057 41.8083333330062601 0
70.4166666659191094 41.8083333330062601 0.5
70.8333333325850845 41.8083333330062601 1
71.2499999992510595 41.8083333330062601 0.5
72.4999999992489848 41.8083333330062601 0
73.3333333325809349 41.8083333330062601 0
81.2499999992344328 41.8083333330062601 0
81.6666666659004363 41.8083333330062601 0
82.083333332566383 41.8083333330062601 0
82.4999999992323865 41.8083333330062601 0
83.3333333325643366 41.8083333330062601 0
83.7499999992302833 41.8083333330062601 0
84.1666666658962868 41.8083333330062601 0
84.5833333325622334 41.8083333330062601 0
84.9999999992282369 41.8083333330062601 0
112.916666665848538 41.8083333330062601 0
113.749999999180488 41.8083333330062601 0
114.166666665846492 41.8083333330062601 0
114.583333332512439 41.8083333330062601 0
114.999999999178442 41.8083333330062601 0
115.416666665844389 41.8083333330062601 0
115.833333332510392 41.8083333330062601 0
116.249999999176339 41.8083333330062601 0
116.666666665842342 41.8083333330062601 0
117.083333332508289 41.8083333330062601 0
117.499999999174292 41.8083333330062601 0
117.916666665840239 41.8083333330062601 0
118.333333332506243 41.8083333330062601 0
118.749999999172189 41.8083333330062601 0
119.166666665838193 41.8083333330062601 0
119.583333332504139 41.8083333330062601 0
119.999999999170143 41.8083333330062601 0
120.41666666583609 41.8083333330062601 0
120.833333332502093 41.8083333330062601 0
121.24999999916804 41.8083333330062601 0
121.666666665834043 41.8083333330062601 0
122.08333333249999 41.8083333330062601 0
123.333333332497944 41.8083333330062601 0
123.74999999916389 41.8083333330062601 0
124.166666665829894 41.8083333330062601 0
124.58333333249584 41.8083333330062601 0
124.999999999161844 41.8083333330062601 0
125.41666666582779 41.8083333330062601 0
125.833333332493794 41.8083333330062601 0
126.249999999159741 41.8083333330062601 0
126.666666665825744 41.8083333330062601 0
127.083333332491691 41.8083333330062601 0.142857149243354797
127.499999999157694 41.8083333330062601 0.166666671633720398
127.916666665823641 41.8083333330062601 0.428571432828903198
128.333333332489644 41.8083333330062601 0.375
128.749999999155591 41.8083333330062601 0.142857149243354797
129.166666665821595 41.8083333330062601 0
129.583333332487541 41.8083333330062601 0.25
129.999999999153545 41.8083333330062601 0.200000002980232239
130.416666665819491 41.8083333330062601 0
139.166666665804996 41.8083333330062601 0.5
139.583333332470943 41.8083333330062601 0.428571432828903198
139.999999999136946 41.8083333330062601 0.333333343267440796
140.416666665802893 41.8083333330062601 0.125
140.833333332468897 41.8083333330062601 0.333333343267440796
141.2499999991349 41.8083333330062601 0.30769231915473938
141.666666665800847 41.8083333330062601 0.333333343267440796
142.499999999132797 41.8083333330062601 0.333333343267440796
142.9166666657988 41.8083333330062601 0.428571432828903198
143.333333332464747 41.8083333330062601 0.333333343267440796
-124.583333333757253 41.3916666663396597 1
-124.166666667091278 41.3916666663396597 0
-123.750000000425302 41.3916666663396597 0.400000005960464478
-123.333333333759327 41.3916666663396597 0.25
-122.916666667093352 41.3916666663396597 0.400000005960464478
-122.500000000427377 41.3916666663396597 0
-122.083333333761402 41.3916666663396597 0
-121.666666667095427 41.3916666663396597 1
-121.250000000429452 41.3916666663396597 0
-120.416666667097502 41.3916666663396597 0.333333343267440796
-120.000000000431527 41.3916666663396597 0
-119.583333333765552 41.3916666663396597 0
-118.750000000433602 41.3916666663396597 0
-117.916666667101651 41.3916666663396597 0
-117.500000000435676 41.3916666663396597 0
-117.083333333769701 41.3916666663396597 0
-116.666666667103726 41.3916666663396597 0
-116.250000000437751 41.3916666663396597 0
-115.416666667105801 41.3916666663396597 0.5
-115.000000000439826 41.3916666663396597 1
-114.583333333773851 41.3916666663396597 0
-114.166666667107876 41.3916666663396597 0.5
-112.916666667109951 41.3916666663396597 0
-112.500000000443976 41.3916666663396597 0
-111.666666667112025 41.3916666663396597 0
-111.25000000044605 41.3916666663396597 0.5
-110.833333333780075 41.3916666663396597 0
-110.4166666671141 41.3916666663396597 0.5
-110.000000000448125 41.3916666663396597 0
-109.58333333378215 41.3916666663396597 0
-109.166666667116175 41.3916666663396597 0.5
-108.7500000004502 41.3916666663396597 0.333333343267440796
-108.333333333784225 41.3916666663396597 0.5
-107.91666666711825 41.3916666663396597 0
-107.500000000452275 41.3916666663396597 0
-107.0833333337863 41.3916666663396597 1
-106.666666667120325 41.3916666663396597 0.333333343267440796
-106.250000000454349 41.3916666663396597 0.25
-105.833333333788374 41.3916666663396597 0.25
-105.000000000456424 41.3916666663396597 0
-104.583333333790449 41.3916666663396597 0
-96.6666666671369228 41.3916666663396597 0
-96.2500000004709477 41.3916666663396597 0
-95.8333333338049727 41.3916666663396597 0
-95.4166666671389976 41.3916666663396597 0
-95.0000000004730225 41.3916666663396597 0
-94.5833333338070474 41.3916666663396597 0.333333343267440796
-94.1666666671410724 41.3916666663396597 0.25
-93.7500000004750973 41.3916666663396597 0
-93.3333333338091222 41.3916666663396597 0.142857149243354797
-92.9166666671431472 41.3916666663396597 0.1111111119389534
-92.5000000004771721 41.3916666663396597 0
-92.083333333811197 41.3916666663396597 0
-91.6666666671452219 41.3916666663396597 0.083333335816860199
-91.2500000004792469 41.3916666663396597 0
-90.8333333338132718 41.3916666663396597 0
-90.4166666671472967 41.3916666663396597 0.083333335816860199
-90.0000000004813216 41.3916666663396597 0
-89.5833333338153466 41.3916666663396597 0
-89.1666666671493715 41.3916666663396597 0.0714285746216773987
-88.7500000004833964 41.3916666663396597 0
-88.3333333338174214 41.3916666663396597 0
-87.9166666671514463 41.3916666663396597 0.076923079788684845
-87.5000000004854712 41.3916666663396597 0
-87.0833333338194961 41.3916666663396597 0
-86.6666666671535211 41.3916666663396597 0.0526315793395042419
-86.250000000487546 41.3916666663396597 0
-85.8333333338215709 41.3916666663396597 0
-85.4166666671555959 41.3916666663396597 0.0666666701436042786
-85.0000000004896208 41.3916666663396597 0
-84.5833333338236457 41.3916666663396597 0
-84.1666666671576706 41.3916666663396597 0.0526315793395042419
-83.7500000004916956 41.3916666663396597 0
-83.3333333338257205 41.3916666663396597 0
-82.9166666671597454 41.3916666663396597 0.0526315793395042419
-82.5000000004937704 41.3916666663396597 0
-82.0833333338277953 41.3916666663396597 0
-81.6666666671618202 41.3916666663396597 0.1111111119389534
-81.2500000004958451 41.3916666663396597 0
-80.8333333338298701 41.3916666663396597 0
-80.416666667163895 41.3916666663396597 0.0666666701436042786
-80.0000000004979199 41.3916666663396597 0.133333340287208557
-79.5833333338319449 41.3916666663396597 0.0588235296308994293
-79.1666666671659698 41.3916666663396597 0.190476194024085999
-78.7500000004999947 41.3916666663396597 0.125
-78.3333333338340196 41.3916666663396597 0.200000002980232239
-77.9166666671680446 41.3916666663396597 0.235294118523597717
-77.5000000005020695 41.3916666663396597 0.214285716414451599
-77.0833333338360944 41.3916666663396597 0.176470592617988586
-76.6666666671701194 41.3916666663396597 0.200000002980232239
-76.2500000005041443 41.3916666663396597 0.136363640427589417
-75.8333333338381692 41.3916666663396597 0.210526317358016968
-75.4166666671721941 41.3916666663396597 0.159999996423721313
-75.0000000005062191 41.3916666663396597 0.125
-74.583333333840244 41.3916666663396597 0.173913046717643738
-74.1666666671742689 41.3916666663396597 0.192307695746421814
-73.7500000005082939 41.3916666663396597 0.100000001490116119
-73.3333333338423188 41.3916666663396597 0.185185179114341736
-72.9166666671763437 41.3916666663396597 0.172413796186447144
-72.5000000005103686 41.3916666663396597 0.185185179114341736
-72.0833333338443936 41.3916666663396597 0.172413796186447144
-71.6666666671784185 41.3916666663396597 0.178571432828903198
-71.2500000005124434 41.3916666663396597 0.217391297221183777
-70.8333333338464683 41.3916666663396597 0.285714298486709595
-70.4166666671804933 41.3916666663396597 0.227272734045982361
-70.0000000005145182 41.3916666663396597 0.266666680574417114
-69.5833333338485431 41.3916666663396597 0.25
-9.16666666728215773 41.3916666663396597 0.200000002980232239
-8.75000000061618266 41.3916666663396597 0.25
-8.33333333395020759 41.3916666663396597 0.300000011920928955
-7.91666666728423252 41.3916666663396597 0.222222223877906799
-7.50000000061825745 41.3916666663396597 0.200000002980232239
-7.08333333395228237 41.3916666663396597 0.200000002980232239
-6.6666666672863073 41.3916666663396597 0.25
-6.25000000062033223 41.3916666663396597 0.400000005960464478
-5.83333333395435716 41.3916666663396597 0.15384615957736969
-5.41666666728838209 41.3916666663396597 0
-5.00000000062240701 41.3916666663396597 0.142857149243354797
-4.58333333395643194 41.3916666663396597 0.25
-4.16666666729045687 41.3916666663396597 0
-3.7500000006244818 41.3916666663396597 0.142857149243354797
-3.33333333395850673 41.3916666663396597 0.166666671633720398
-2.91666666729253166 41.3916666663396597 0
-2.50000000062655658 41.3916666663396597 0
-2.08333333396058151 41.3916666663396597 0
-1.66666666729460644 41.3916666663396597 0
-1.25000000062863137 41.3916666663396597 0.5
-0.833333333962656297 41.3916666663396597 0.5
-0.416666667296681226 41.3916666663396597 0.5
-6.30706153970095329e-10 41.3916666663396597 0.166666671633720398
0.416666666035268918 41.3916666663396597 0.125
0.83333333270124399 41.3916666663396597 0
1.24999999936721906 41.3916666663396597 0.100000001490116119
1.66666666603319413 41.3916666663396597 0.0714285746216773987
2.0833333326991692 41.3916666663396597 0
2.49999999936514428 41.3916666663396597 0.0588235296308994293
2.91666666603111935 41.3916666663396597 0
3.33333333269709442 41.3916666663396597 0
7.91666666602282021 41.3916666663396597 0
8.33333333268879528 41.3916666663396597 0.125
8.74999999935477035 41.3916666663396597 0.222222223877906799
9.16666666602074542 41.3916666663396597 0.25
9.5833333326867205 41.3916666663396597 0.25
9.99999999935269557 41.3916666663396597 0
12.0833333326825709 41.3916666663396597 0
12.499999999348546 41.3916666663396597 0.142857149243354797
12.9166666660145211 41.3916666663396597 0.166666671633720398
13.3333333326804961 41.3916666663396597 0.222222223877906799
13.7499999993464712 41.3916666663396597 0.200000002980232239
14.1666666660124463 41.3916666663396597 0.230769231915473938
14.5833333326784214 41.3916666663396597 0.1111111119389534
14.9999999993443964 41.3916666663396597 0.166666671633720398
15.4166666660103715 41.3916666663396597 0.25
15.8333333326763466 41.3916666663396597 0.200000002980232239
16.2499999993423216 41.3916666663396597 0.200000002980232239
16.6666666660082967 41.3916666663396597 0.166666671633720398
17.0833333326742718 41.3916666663396597 0.166666671633720398
17.4999999993402469 41.3916666663396597 1
19.1666666660041471 41.3916666663396597 0.200000002980232239
19.5833333326701222 41.3916666663396597 0.222222223877906799
19.9999999993360973 41.3916666663396597 0.222222223877906799
20.4166666660020724 41.3916666663396597 0.300000011920928955
20.8333333326680474 41.3916666663396597 0.375
21.2499999993340225 41.3916666663396597 0.5
21.6666666659999976 41.3916666663396597 1
22.0833333326659726 41.3916666663396597 1
22.4999999993319477 41.3916666663396597 0
22.9166666659979228 41.3916666663396597 0
23.3333333326638979 41.3916666663396597 0
23.7499999993298729 41.3916666663396597 0
24.166666665995848 41.3916666663396597 0
24.5833333326618231 41.3916666663396597 0
24.9999999993277982 41.3916666663396597 0
25.4166666659937732 41.3916666663396597 0.1111111119389534
25.8333333326597483 41.3916666663396597 0.166666671633720398
26.2499999993257234 41.3916666663396597 0.25
26.6666666659916984 41.3916666663396597 0.200000002980232239
27.0833333326576735 41.3916666663396597 0.142857149243354797
27.4999999993236486 41.3916666663396597 0.200000002980232239
27.9166666659896237 41.3916666663396597 0.125
28.3333333326555987 41.3916666663396597 0.1111111119389534
28.7499999993215738 41.3916666663396597 0.076923079788684845
29.1666666659875489 41.3916666663396597 0.076923079788684845
29.5833333326535239 41.3916666663396597 0.0714285746216773987
29.999999999319499 41.3916666663396597 0
30.4166666659854741 41.3916666663396597 0.142857149243354797
30.8333333326514492 41.3916666663396597 0.166666671633720398
31.2499999993174242 41.3916666663396597 0
31.6666666659833993 41.3916666663396597 0.300000011920928955
32.0833333326493744 41.3916666663396597 0.333333343267440796
32.4999999993153494 41.3916666663396597 0.1111111119389534
32.9166666659813245 41.3916666663396597 0.75
33.3333333326472996 41.3916666663396597 0.5
33.7499999993132747 41.3916666663396597 0
34.1666666659792782 41.3916666663396597 0.5
34.5833333326452532 41.3916666663396597 0.166666671633720398
34.9999999993112283 41.3916666663396597 0
35.4166666659772034 41.3916666663396597 0.285714298486709595
35.8333333326431784 41.3916666663396597 0.333333343267440796
36.2499999993091535 41.3916666663396597 0.166666671633720398
36.6666666659751286 41.3916666663396597 0.200000002980232239
37.0833333326411037 41.3916666663396597 0.0909090936183929443
37.4999999993070787 41.3916666663396597 0.083333335816860199
37.9166666659730538 41.3916666663396597 0.214285716414451599
38.3333333326390289 41.3916666663396597 0.400000005960464478
38.7499999993050039 41.3916666663396597 0
39.166666665970979 41.3916666663396597 0.142857149243354797
39.5833333326369541 41.3916666663396597 0.142857149243354797
39.9999999993029292 41.3916666663396597 0
40.4166666659689042 41.3916666663396597 0.181818187236785889
40.8333333326348793 41.3916666663396597 0.300000011920928955
41.2499999993008544 41.3916666663396597 0
41.6666666659668294 41.3916666663396597 0.333333343267440796
42.0833333326328045 41.3916666663396597 0.5
42.4999999992987796 41.3916666663396597 0.25
42.9166666659647547 41.3916666663396597 0.400000005960464478
43.3333333326307297 41.3916666663396597 0.285714298486709595
43.7499999992967048 41.3916666663396597 0.25
44.1666666659626799 41.3916666663396597 0.5
44.5833333326286549 41.3916666663396597 0.666666686534881592
44.99999999929463 41.3916666663396597 0
45.4166666659606051 41.3916666663396597 0.666666686534881592
45.8333333326265802 41.3916666663396597 0.666666686534881592
46.6666666659585303 41.3916666663396597 0.5
47.0833333326245054 41.3916666663396597 0.5
47.4999999992904804 41.3916666663396597 0.5
47.9166666659564555 41.3916666663396597 0.400000005960464478
48.3333333326224306 41.3916666663396597 0.666666686534881592
70.4166666659191094 41.3916666663396597 1
73.3333333325809349 41.3916666663396597 0
73.74999999924691 41.3916666663396597 0
74.166666665912885 41.3916666663396597 0
79.999999999236536 41.3916666663396597 0
80.8333333325684862 41.3916666663396597 0
81.2499999992344328 41.3916666663396597 0
81.6666666659004363 41.3916666663396597 0
82.4999999992323865 41.3916666663396597 0
82.9166666658983331 41.3916666663396597 0
83.3333333325643366 41.3916666663396597 0
83.7499999992302833 41.3916666663396597 0
84.1666666658962868 41.3916666663396597 0
109.999999999186741 41.3916666663396597 0
111.249999999184638 41.3916666663396597 0
111.666666665850641 41.3916666663396597 0
112.499999999182592 41.3916666663396597 0
112.916666665848538 41.3916666663396597 0
113.333333332514542 41.3916666663396597 0
113.749999999180488 41.3916666663396597 0
114.166666665846492 41.3916666663396597 0
114.583333332512439 41.3916666663396597 0
114.999999999178442 41.3916666663396597 0
115.416666665844389 41.3916666663396597 0
115.833333332510392 41.3916666663396597 0
116.249999999176339 41.3916666663396597 0
116.666666665842342 41.3916666663396597 0
117.083333332508289 41.3916666663396597 0
117.499999999174292 41.3916666663396597 0
117.916666665840239 41.3916666663396597 0
118.333333332506243 41.3916666663396597 0
118.749999999172189 41.3916666663396597 0
119.166666665838193 41.3916666663396597 0
119.583333332504139 41.3916666663396597 0
119.999999999170143 41.3916666663396597 0
120.41666666583609 41.3916666663396597 0
120.833333332502093 41.3916666663396597 0
121.24999999916804 41.3916666663396597 0
121.666666665834043 41.3916666663396597 0
122.08333333249999 41.3916666663396597 0
122.499999999165993 41.3916666663396597 0
122.91666666583194 41.3916666663396597 0
123.333333332497944 41.3916666663396597 0
123.74999999916389 41.3916666663396597 0
124.166666665829894 41.3916666663396597 0
124.58333333249584 41.3916666663396597 0
124.999999999161844 41.3916666663396597 0
125.41666666582779 41.3916666663396597 0
125.833333332493794 41.3916666663396597 0
126.249999999159741 41.3916666663396597 0
126.666666665825744 41.3916666663396597 0
127.083333332491691 41.3916666663396597 0
127.499999999157694 41.3916666663396597 0.200000002980232239
127.916666665823641 41.3916666663396597 0.300000011920928955
128.333333332489644 41.3916666663396597 0.428571432828903198
128.749999999155591 41.3916666663396597 0.142857149243354797
129.166666665821595 41.3916666663396597 0.181818187236785889
129.583333332487541 41.3916666663396597 0.166666671633720398
129.999999999153545 41.3916666663396597 0
139.166666665804996 41.3916666663396597 0
139.583333332470943 41.3916666663396597 0.200000002980232239
139.999999999136946 41.3916666663396597 0.222222223877906799
140.416666665802893 41.3916666663396597 0.200000002980232239
140.833333332468897 41.3916666663396597 0.100000001490116119
141.2499999991349 41.3916666663396597 0.214285716414451599
141.666666665800847 41.3916666663396597 0.200000002980232239
-124.583333333757253 40.9749999996730594 0.5
-124.166666667091278 40.9749999996730594 0.25
-123.750000000425302 40.9749999996730594 0.400000005960464478
-123.333333333759327 40.9749999996730594 0.166666671633720398
-122.916666667093352 40.9749999996730594 0.333333343267440796
-122.500000000427377 40.9749999996730594 0.666666686534881592
-122.083333333761402 40.9749999996730594 0
-121.666666667095427 40.9749999996730594 0
-121.250000000429452 40.9749999996730594 0
-120.833333333763477 40.9749999996730594 0
-120.416666667097502 40.9749999996730594 0.333333343267440796
-120.000000000431527 40.9749999996730594 0
-119.583333333765552 40.9749999996730594 0
-119.166666667099577 40.9749999996730594 0
-118.750000000433602 40.9749999996730594 0
-118.333333333767627 40.9749999996730594 0
-117.916666667101651 40.9749999996730594 0
-117.500000000435676 40.9749999996730594 0
-117.083333333769701 40.9749999996730594 0
-116.666666667103726 40.9749999996730594 0
-116.250000000437751 40.9749999996730594 0
-115.833333333771776 40.9749999996730594 0
-115.416666667105801 40.9749999996730594 0.5
-115.000000000439826 40.9749999996730594 0.5
-114.583333333773851 40.9749999996730594 0
-113.333333333775926 40.9749999996730594 0
-112.916666667109951 40.9749999996730594 0
-112.500000000443976 40.9749999996730594 0
-112.083333333778 40.9749999996730594 0
-111.666666667112025 40.9749999996730594 0
-111.25000000044605 40.9749999996730594 0.333333343267440796
-110.833333333780075 40.9749999996730594 0
-110.4166666671141 40.9749999996730594 0.333333343267440796
-110.000000000448125 40.9749999996730594 0.333333343267440796
-109.58333333378215 40.9749999996730594 0.333333343267440796
-109.166666667116175 40.9749999996730594 0.333333343267440796
-108.7500000004502 40.9749999996730594 0.333333343267440796
-108.333333333784225 40.9749999996730594 0.333333343267440796
-107.91666666711825 40.9749999996730594 0.333333343267440796
-107.500000000452275 40.9749999996730594 0.333333343267440796
-107.0833333337863 40.9749999996730594 0.200000002980232239
-106.666666667120325 40.9749999996730594 0.25
-106.250000000454349 40.9749999996730594 0.25
-105.833333333788374 40.9749999996730594 0.25
-105.416666667122399 40.9749999996730594 0.333333343267440796
-105.000000000456424 40.9749999996730594 0
-97.0833333338028979 40.9749999996730594 0
-95.8333333338049727 40.9749999996730594 0
-95.4166666671389976 40.9749999996730594 0
-95.0000000004730225 40.9749999996730594 0
-94.5833333338070474 40.9749999996730594 0
-94.1666666671410724 40.9749999996730594 0
-93.7500000004750973 40.9749999996730594 0
-93.3333333338091222 40.9749999996730594 0.166666671633720398
-92.9166666671431472 40.9749999996730594 0.0909090936183929443
-92.5000000004771721 40.9749999996730594 0
-92.083333333811197 40.9749999996730594 0
-91.6666666671452219 40.9749999996730594 0.076923079788684845
-91.2500000004792469 40.9749999996730594 0
-90.8333333338132718 40.9749999996730594 0
-90.4166666671472967 40.9749999996730594 0.0714285746216773987
-90.0000000004813216 40.9749999996730594 0
-89.5833333338153466 40.9749999996730594 0
-89.1666666671493715 40.9749999996730594 0.0714285746216773987
-88.7500000004833964 40.9749999996730594 0
-88.3333333338174214 40.9749999996730594 0
-87.9166666671514463 40.9749999996730594 0.083333335816860199
-87.5000000004854712 40.9749999996730594 0
-87.0833333338194961 40.9749999996730594 0
-86.6666666671535211 40.9749999996730594 0.0714285746216773987
-86.250000000487546 40.9749999996730594 0
-85.8333333338215709 40.9749999996730594 0
-85.4166666671555959 40.9749999996730594 0.0555555559694766998
-85.0000000004896208 40.9749999996730594 0
-84.5833333338236457 40.9749999996730594 0
-84.1666666671576706 40.9749999996730594 0.0555555559694766998
-83.7500000004916956 40.9749999996730594 0
-83.3333333338257205 40.9749999996730594 0
-82.9166666671597454 40.9749999996730594 0.125
-82.5000000004937704 40.9749999996730594 0.0588235296308994293
-82.0833333338277953 40.9749999996730594 0
-81.6666666671618202 40.9749999996730594 0.0500000007450580597
-81.2500000004958451 40.9749999996730594 0.100000001490116119
-80.8333333338298701 40.9749999996730594 0.0952380970120429993
-80.416666667163895 40.9749999996730594 0.105263158679008484
-80.0000000004979199 40.9749999996730594 0.0588235296308994293
-79.5833333338319449 40.9749999996730594 0.0555555559694766998
-79.1666666671659698 40.9749999996730594 0.25
-78.7500000004999947 40.9749999996730594 0.1875
-78.3333333338340196 40.9749999996730594 0.0666666701436042786
-77.9166666671680446 40.9749999996730594 0.222222223877906799
-77.5000000005020695 40.9749999996730594 0.100000001490116119
-77.0833333338360944 40.9749999996730594 0.105263158679008484
-76.6666666671701194 40.9749999996730594 0.0869565233588218689
-76.2500000005041443 40.9749999996730594 0.115384615957736969
-75.8333333338381692 40.9749999996730594 0.157894730567932129
-75.4166666671721941 40.9749999996730594 0.150000005960464478
-75.0000000005062191 40.9749999996730594 0.148148149251937866
-74.583333333840244 40.9749999996730594 0.0500000007450580597
-74.1666666671742689 40.9749999996730594 0.117647059261798859
-73.7500000005082939 40.9749999996730594 0.1111111119389534
-73.3333333338423188 40.9749999996730594 0.076923079788684845
-72.9166666671763437 40.9749999996730594 0.208333328366279602
-72.5000000005103686 40.9749999996730594 0.208333328366279602
-72.0833333338443936 40.9749999996730594 0.208333328366279602
-71.6666666671784185 40.9749999996730594 0.200000002980232239
-71.2500000005124434 40.9749999996730594 0.1875
-70.8333333338464683 40.9749999996730594 0.294117659330368042
-70.4166666671804933 40.9749999996730594 0.384615391492843628
-70.0000000005145182 40.9749999996730594 0.285714298486709595
-69.5833333338485431 40.9749999996730594 0
-9.16666666728215773 40.9749999996730594 0.333333343267440796
-8.75000000061618266 40.9749999996730594 0.333333343267440796
-8.33333333395020759 40.9749999996730594 0.400000005960464478
-7.91666666728423252 40.9749999996730594 0.60000002384185791
-7.50000000061825745 40.9749999996730594 0.222222223877906799
-7.08333333395228237 40.9749999996730594 0.166666671633720398
-6.6666666672863073 40.9749999996730594 0.285714298486709595
-6.25000000062033223 40.9749999996730594 0.25
-5.83333333395435716 40.9749999996730594 0.100000001490116119
-5.41666666728838209 40.9749999996730594 0.333333343267440796
-5.00000000062240701 40.9749999996730594 0
-4.58333333395643194 40.9749999996730594 0
-4.16666666729045687 40.9749999996730594 0.25
-3.7500000006244818 40.9749999996730594 0
-3.33333333395850673 40.9749999996730594 0
-2.91666666729253166 40.9749999996730594 0.333333343267440796
-2.50000000062655658 40.9749999996730594 0
-2.08333333396058151 40.9749999996730594 0
-1.66666666729460644 40.9749999996730594 0
-1.25000000062863137 40.9749999996730594 0.25
-0.833333333962656297 40.9749999996730594 0.333333343267440796
-0.416666667296681226 40.9749999996730594 0.5
-6.30706153970095329e-10 40.9749999996730594 0
0.416666666035268918 40.9749999996730594 0
0.83333333270124399 40.9749999996730594 0.200000002980232239
1.24999999936721906 40.9749999996730594 0
1.66666666603319413 40.9749999996730594 0
2.0833333326991692 40.9749999996730594 0
7.91666666602282021 40.9749999996730594 0.142857149243354797
8.33333333268879528 40.9749999996730594 0.333333343267440796
8.74999999935477035 40.9749999996730594 0.25
9.16666666602074542 40.9749999996730594 0.200000002980232239
9.5833333326867205 40.9749999996730594 0.333333343267440796
9.99999999935269557 40.9749999996730594 0
12.9166666660145211 40.9749999996730594 0.25
13.3333333326804961 40.9749999996730594 0.166666671633720398
13.7499999993464712 40.9749999996730594 0.142857149243354797
14.1666666660124463 40.9749999996730594 0.125
14.5833333326784214 40.9749999996730594 0.142857149243354797
14.9999999993443964 40.9749999996730594 0.0909090936183929443
15.4166666660103715 40.9749999996730594 0
15.8333333326763466 40.9749999996730594 0.142857149243354797
16.2499999993423216 40.9749999996730594 0.166666671633720398
16.6666666660082967 40.9749999996730594 0
17.0833333326742718 40.9749999996730594 0.142857149243354797
17.4999999993402469 40.9749999996730594 0.142857149243354797
17.9166666660062219 40.9749999996730594 0.166666671633720398
18.333333332672197 40.9749999996730594 1
19.1666666660041471 40.9749999996730594 0.200000002980232239
19.5833333326701222 40.9749999996730594 0.200000002980232239
19.9999999993360973 40.9749999996730594 0.100000001490116119
20.4166666660020724 40.9749999996730594 0.300000011920928955
20.8333333326680474 40.9749999996730594 0.333333343267440796
21.2499999993340225 40.9749999996730594 0.5
21.6666666659999976 40.9749999996730594 0.25
22.0833333326659726 40.9749999996730594 0
22.4999999993319477 40.9749999996730594 0
22.9166666659979228 40.9749999996730594 0
23.3333333326638979 40.9749999996730594 0
23.7499999993298729 40.9749999996730594 0.166666671633720398
24.166666665995848 40.9749999996730594 0.166666671633720398
24.5833333326618231 40.9749999996730594 0.166666671633720398
24.9999999993277982 40.9749999996730594 0.200000002980232239
25.4166666659937732 40.9749999996730594 0.200000002980232239
25.8333333326597483 40.9749999996730594 0.125
26.2499999993257234 40.9749999996730594 0.142857149243354797
26.6666666659916984 40.9749999996730594 0.166666671633720398
27.0833333326576735 40.9749999996730594 0.142857149243354797
27.4999999993236486 40.9749999996730594 0.166666671633720398
27.9166666659896237 40.9749999996730594 0.200000002980232239
28.3333333326555987 40.9749999996730594 0.142857149243354797
28.7499999993215738 40.9749999996730594 0.1111111119389534
29.1666666659875489 40.9749999996730594 0.166666671633720398
29.5833333326535239 40.9749999996730594 0.200000002980232239
29.999999999319499 40.9749999996730594 0.1111111119389534
30.4166666659854741 40.9749999996730594 0.25
30.8333333326514492 40.9749999996730594 0.181818187236785889
31.2499999993174242 40.9749999996730594 0.222222223877906799
31.6666666659833993 40.9749999996730594 0.333333343267440796
32.0833333326493744 40.9749999996730594 0.400000005960464478
32.4999999993153494 40.9749999996730594 0.333333343267440796
32.9166666659813245 40.9749999996730594 1
33.7499999993132747 40.9749999996730594 0
34.1666666659792782 40.9749999996730594 0
34.5833333326452532 40.9749999996730594 0
34.9999999993112283 40.9749999996730594 0
35.4166666659772034 40.9749999996730594 0
35.8333333326431784 40.9749999996730594 0.25
36.2499999993091535 40.9749999996730594 0.333333343267440796
36.6666666659751286 40.9749999996730594 0.1111111119389534
37.0833333326411037 40.9749999996730594 0.25
37.4999999993070787 40.9749999996730594 0.200000002980232239
37.9166666659730538 40.9749999996730594 0.272727280855178833
38.3333333326390289 40.9749999996730594 0.272727280855178833
38.7499999993050039 40.9749999996730594 0.166666671633720398
39.166666665970979 40.9749999996730594 0.200000002980232239
39.5833333326369541 40.9749999996730594 0.142857149243354797
39.9999999993029292 40.9749999996730594 0.222222223877906799
40.4166666659689042 40.9749999996730594 0.25
40.8333333326348793 40.9749999996730594 0.666666686534881592
41.2499999993008544 40.9749999996730594 0.666666686534881592
41.6666666659668294 40.9749999996730594 0.333333343267440796
42.0833333326328045 40.9749999996730594 0.5
42.4999999992987796 40.9749999996730594 0.333333343267440796
42.9166666659647547 40.9749999996730594 0.666666686534881592
43.3333333326307297 40.9749999996730594 1
43.7499999992967048 40.9749999996730594 0.5
44.1666666659626799 40.9749999996730594 0.75
44.5833333326286549 40.9749999996730594 0.5
44.99999999929463 40.9749999996730594 1
45.4166666659606051 40.9749999996730594 1
45.8333333326265802 40.9749999996730594 0.5
46.2499999992925552 40.9749999996730594 0.5
46.6666666659585303 40.9749999996730594 0.5
47.9166666659564555 40.9749999996730594 0
48.3333333326224306 40.9749999996730594 0
48.7499999992884057 40.9749999996730594 0.5
49.1666666659543807 40.9749999996730594 0
49.5833333326203558 40.9749999996730594 0
49.9999999992863309 40.9749999996730594 0
52.9166666659481564 40.9749999996730594 0
75.8333333325767853 40.9749999996730594 1
78.7499999992385824 40.9749999996730594 0
79.1666666659045859 40.9749999996730594 0
79.999999999236536 40.9749999996730594 0
80.8333333325684862 40.9749999996730594 0
81.2499999992344328 40.9749999996730594 0
81.6666666659004363 40.9749999996730594 0
82.4999999992323865 40.9749999996730594 0
82.9166666658983331 40.9749999996730594 0
83.3333333325643366 40.9749999996730594 0
83.7499999992302833 40.9749999996730594 0
84.1666666658962868 40.9749999996730594 0
107.916666665856837 40.9749999996730594 0
108.749999999188788 40.9749999996730594 0
109.583333332520738 40.9749999996730594 0
110.833333332518691 40.9749999996730594 0
112.083333332516588 40.9749999996730594 0
112.499999999182592 40.9749999996730594 0
112.916666665848538 40.9749999996730594 0
113.333333332514542 40.9749999996730594 0
113.749999999180488 40.9749999996730594 0
114.166666665846492 40.9749999996730594 0
114.583333332512439 40.9749999996730594 0
114.999999999178442 40.9749999996730594 0
115.416666665844389 40.9749999996730594 0
115.833333332510392 40.9749999996730594 0
116.249999999176339 40.9749999996730594 0
116.666666665842342 40.9749999996730594 0
117.083333332508289 40.9749999996730594 0
117.499999999174292 40.9749999996730594 0
117.916666665840239 40.9749999996730594 0
118.333333332506243 40.9749999996730594 0
118.749999999172189 40.9749999996730594 0
119.166666665838193 40.9749999996730594 0
119.583333332504139 40.9749999996730594 0
119.999999999170143 40.9749999996730594 0
120.41666666583609 40.9749999996730594 0
120.833333332502093 40.9749999996730594 0
121.24999999916804 40.9749999996730594 0
121.666666665834043 40.9749999996730594 0
122.499999999165993 40.9749999996730594 0
122.91666666583194 40.9749999996730594 0
123.333333332497944 40.9749999996730594 0
123.74999999916389 40.9749999996730594 0
124.166666665829894 40.9749999996730594 0
124.58333333249584 40.9749999996730594 0
124.999999999161844 40.9749999996730594 0
125.41666666582779 40.9749999996730594 0
125.833333332493794 40.9749999996730594 0
126.249999999159741 40.9749999996730594 0
126.666666665825744 40.9749999996730594 0
127.083333332491691 40.9749999996730594 0.25
127.499999999157694 40.9749999996730594 0.125
127.916666665823641 40.9749999996730594 0.222222223877906799
128.333333332489644 40.9749999996730594 0.25
128.749999999155591 40.9749999996730594 0
129.166666665821595 40.9749999996730594 0.125
129.583333332487541 40.9749999996730594 0.200000002980232239
129.999999999153545 40.9749999996730594 0.25
